# 3D point list with one line of data per point:
#   POINT3D_ID, X, Y, Z, R, G, B, ERROR, TRACK[] as (IMAGE_ID, POINT2D_IDX)
# Number of points: 294, mean track length: 9.8701523545706369
14712 -0.9464503718755628 1.7702172741561595 0.12006894108649058 75 52 11 0.23450314574317652 73 141 74 284 75 256
13547 -1.0106410501331449 4.7206482720400942 -5.8099734980477162 2 2 0 0.14392627225388432 132 125 103 39
14205 -1.7882462078631003 2.3578030491956188 0.33419016158096293 11 12 6 0.40086296551445838 127 286 125 393 75 285 52 278 83 213 84 208
14145 1.7844478377303992 6.2962879565665499 -5.0041001411491637 157 125 78 0.72750850598581684 131 588 100 506 85 475 86 426
13552 2.1285925699413903 3.5170993706795577 -0.5832764513628691 161 121 56 0.57852624651765749 104 137 105 114 103 102 126 58
14149 -0.83647542028850419 1.7280356344605197 0.0020936901684204257 185 139 51 1.628129237806986 101 619 127 614 100 542
13556 -0.1955638261756189 3.7395730295813117 -0.39605922344800282 210 173 102 0.10026431566241706 131 189 103 150 102 138 129 145
15175 -1.1448879894491506 4.1164909469204343 -1.2280761764657915 0 0 0 0.50763355750923767 71 450 75 465
13558 -2.2148065210873851 1.900794586893904 0.59014641788418309 24 27 16 0.28734698124535279 104 235 103 173 126 136 124 85
13560 -0.057789506734871765 6.9372779261392896 -7.5608923361078499 130 129 111 0.38293735787812616 104 285 106 239 103 238 102 235 126 17
14664 -0.98494453417849881 3.429730979501588 0.14111074952445163 24 33 23 0.098811995384913656 73 519 72 458 74 491
13563 -1.8410873980372178 1.8634342230925365 0.2384544716325484 124 73 21 0.15993982515527397 105 279 130 213 103 296 102 308
14157 0.098543821932849648 1.9767182056112813 2.7055726392596902 157 166 139 1.5838458666446873 101 617 100 593 124 608 125 624
13564 -2.2659790442997632 2.1032345469954459 0.01187579981370071 69 69 54 0.38053394840601207 130 356 103 299 102 144 128 152
14658 -2.827451573944479 1.5476732371639492 0.049418195739852677 9 11 4 0.26801423212102821 73 495 72 434 74 470 31 433 32 553 54 492 51 405 52 388 53 343
13565 -1.4069588854192754 2.4065686567935387 0.37003549875338032 39 36 21 0.42685052775633081 104 469 130 459 103 306 102 310 128 333 126 306 101 266 105 284 100 239 125 78 124 249
13566 -2.201539354180996 1.8770882624892953 0.68412478795057718 13 19 9 0.26722108515577542 104 371 103 323 102 167 129 326 128 183 101 125 73 208 72 186 74 143 71 279 31 283 30 350 76 135 32 346 29 94 54 368 68 416 49 108 50 141 51 116 52 134 48 89 53 139
14000 -2.3100724285215244 1.8701116851337249 1.4032292620537818 67 62 42 0.57716939090508856 127 607 126 616 101 614 125 619 124 578
13569 -1.2667523234316125 3.7942447954327299 -6.0953681180329751 157 141 89 0.41417674300730084 130 392 256 732 103 448 128 375 75 416 70 437 69 401 54 458 51 386 52 371 56 397 57 430 35 443 58 419 65 462 36 458 59 463 64 515 38 428 63 482 39 479 40 494 41 461 42 367
14525 -1.2787892404580143 2.8912133910702442 1.3526936031708336 171 124 38 0.26363645307191219 85 329 98 351 86 288 122 216
13570 0.79712634801339266 4.7493950542578949 -5.9340468399064266 20 20 8 0.44872897598068895 105 426 106 427 103 450 127 432
14004 -2.3632671522195796 1.5948791584901274 0.89609949115655785 47 48 34 0.15897546031973625 127 660 128 671 126 661 125 681
13573 2.5923821665455269 3.7084740726891625 -1.4292213936272968 169 144 88 1.1822025333726089 130 566 285 527 99 370 284 505 86 303 85 346 286 349 287 308 264 341 125 443
13575 -0.85463234597867399 3.0606442068048674 0.99562969755473052 3 8 2 0.48331190951526465 96 533 103 570 102 533 128 582 127 565 126 505 101 464 100 420 125 566 124 483 99 461 85 468 123 471 86 421 122 388 121 407 119 323
13576 -0.73089546151139406 3.2969169773221263 -0.1441539643565749 205 172 117 1.4491663227832381 103 606 102 590 129 417 128 510 127 481 126 304 101 262
14008 -2.5227050500007624 2.1188264659935201 0.97711881597970307 6 8 2 0.29454920428061909 127 696 126 709 125 712
13577 -1.5432760871528188 2.1890552952953244 0.76850627587973275 101 96 67 0.53410880690164431 104 680 103 630 102 692 129 612 128 638 127 624 126 637 101 607 100 572 125 644 99 543 123 536
13583 3.0430079071033154 4.2887248794251729 -3.8453519958445224 18 12 0 0.52047815120870244 105 316 106 425 104 501 103 362 131 242 108 255 107 354 130 391 104 502 129 450 128 467
13584 2.6694480568284162 3.8510770836929127 -3.1994137237742395 176 139 67 1.3148153777857707 106 431 107 464 105 427 103 366 132 101 284 348 131 244 285 260 104 397 102 222 129 212 130 266 128 243 127 203
13952 1.0582500427491566 3.8829476948111559 -0.41728935720300575 29 34 12 0.28179602563009926 128 117 131 311 126 97 100 226 110 444 85 225 123 66 251 124 29 109 64 210 47 97 60 278 63 199 62 333 39 308 21 214 45 180 286 126 121 74 87 147 263 36 262 28
13585 -2.0948813660988126 2.0545333796255592 0.54023701991575956 52 53 39 0.15687822324344775 104 232 103 168 102 161 128 176 126 137 100 123 125 81
13586 -2.2641436340260088 1.8699654512426886 0.45945610764101669 28 29 21 0.20040928432013705 104 227 103 163 102 323 129 166 128 170 127 136 126 131 101 274 124 252 73 333 72 176 71 166 76 298 52 112
13588 -2.2192902730070161 1.9607122794545075 0.38580215803003076 32 35 21 0.31774579159335031 104 364 103 312 102 322 129 164 128 167 127 130 126 128 101 273 125 79 124 248 72 294 73 332 74 311 71 274 75 277 31 273 30 340 76 297 32 338 29 247 77 243 70 331 69 321 54 348 68 327 49 245 50 273 51 97 52 254 55 301 56 304 48 234 53 120 84 64 81 77
13956 -1.5742809783953422 2.0747769933168443 0.81371051931671867 111 106 76 0.21421944307013807 103 174 127 292 126 141 124 258 98 249 73 217 72 201 74 332 71 177 31 296 30 176 76 147 32 359 29 108 77 106 28 251 78 134 50 152 51 140 52 152 27 253 48 106 80 88 81 113 47 88 82 77 46 82 84 79
13589 -2.2622193944243243 1.9030625998109361 0.56061640930970991 8 12 5 0.20452880048696165 104 551 103 490 102 522 129 426 103 429 128 444 127 398 126 416 101 453 125 394 124 474 125 473 73 438 72 371 74 405 71 375 75 390 31 375 30 487 76 385 32 423 29 333 77 338 70 426 69 390 54 441 68 412 49 361 50 369 51 261 52 343 55 383 48 325 53 300
14982 2.1125123665596783 2.8046452973035025 -2.2036588941974982 166 143 91 0.62308987069262856 72 50 73 43 30 4 67 387 78 191 55 344
13591 3.3809125626943328 0.87366790028915953 -0.94425927536090337 18 17 0 0.46109111298503092 186 232 188 389 189 245 284 310 109 551 188 474 283 38 284 20 281 62 115 26 93 24 137 2 136 14 95 21 114 50 135 26 188 58 112 63 134 251 111 27 132 22 187 33 109 287 257 286 257 560 258 300 259 347
14475 0.43280898666320505 2.6952888927006544 2.5162772842129546 147 156 130 0.99294932200524266 124 153 85 167 123 154 119 136 87 109
13592 3.417594057542499 0.86270830774818585 -1.6421349818891386 64 50 19 0.93602948405008946 187 601 188 597 189 537 190 623 228 586 229 515 278 266 283 274 284 383 282 278 277 217 281 267 94 489 136 490 95 437 114 414 135 409 113 341 111 575 257 553 256 711 258 508 283 216 135 214 112 56 94 14 278 144 281 60 282 161 64 572 60 507 65 688 63 477 61 545 62 508
13960 -2.1660339971404623 1.8777477563009239 0.98501061410644342 120 68 20 0.09437755939617351 102 185 126 153 101 140 124 104
13593 1.688563427701584 4.3042480724707621 -1.5095089543349738 57 20 4 1.0469938691400436 92 499 93 543 115 669 284 445 137 467 94 538 116 434 95 484 114 544 135 530 112 509 134 608 111 617 133 563 110 584 132 641 109 684 96 510 131 298 108 588 259 561 254 593 253 709 107 397 130 427 285 396 106 362 105 250 104 434 103 267 259 168 253 196 102 401 129 388 128 410 127 365 126 389 101 350 100 320 125 360 124 351 99 298 73 557 97 445 85 302 123 294 72 499 74 387 74 465 71 440 75 373 75 447 31 508 30 640 76 365 76 458 32 560 29 403 77 321 77 411 70 468 69 445 54 574 255 651 252 294 252 577 68 523 67 503 28 457 78 328 49 430 55 449 33 497 27 381 34 494 48 382 57 479 66 428 79 370 251 462 35 507 58 468 65 523 26 345 81 314 260 442 36 499 117 308 47 344 82 295 46 294 83 349 25 336 59 440 37 440 64 486 60 430 38 477 63 386 61 474 62 481 39 455 40 468 24 323 41 437 42 410 43 430 86 258 90 373 23 338 22 314 21 326 44 347 45 246 286 304 122 241 121 262 261 372 89 339 119 233 120 174 88 226 87 202 264 240 250 297 249 281
13594 0.3213992251099117 5.568583069046138 -6.4166342108203018 30 22 11 1.0619954161748801 95 635 114 648 112 661 113 662 111 714 95 634 114 647 135 625 136 608 112 660 113 661 134 710 111 713 133 668 110 675 132 727 109 780 131 644 257 803 258 752 108 673 255 707 254 659 253 795 107 648 130 673 103 665 104 717 106 616 105 623 129 633 128 674 73 668 72 599 72 600 71 597 71 598 31 632 32 671 70 632 69 622 54 654 68 643 67 656 51 579 52 549 55 588 33 599 66 592 53 492
13964 -1.5793483364128302 1.7303287471943991 1.7515885297757705 107 101 71 0.10836135927241854 102 351 126 186 101 177 124 131 99 252 123 141
13597 2.1434889800371018 3.6782303728621422 0.023951203111221148 155 141 106 0.27320653990194593 284 455 115 390 92 290 93 305 137 291 94 372 116 288 91 273 136 383 95 324 135 398 112 445 134 463 111 461 133 436 110 438 132 480 109 517 96 442 131 396 108 523 107 496 285 489 106 460 130 516 105 456 104 531 103 470 110 531 132 584 102 501 126 476 101 367 101 437 100 335 125 378 124 371 99 320 97 352 98 336 123 318 74 401 73 335 71 368 75 387 30 514 76 380 29 349 77 252 70 321 69 322 252 551 68 336 67 348 28 252 78 262 49 283 27 257 48 130 66 198 79 123 80 112 251 425 26 113 81 149 260 392 117 241 86 273 86 321 90 205 118 210 286 374 287 333 122 264 121 282 261 338 89 262 119 245 120 191 88 240 87 218 264 300 250 261 263 230 249 231 288 267 262 204 265 254
13600 2.5895350882756434 1.7476829932217322 -1.5448099196683942 193 134 131 1.4539682722908602 94 678 116 559 92 573 115 752 95 606 114 613 134 673 137 564 136 544 135 555 112 598 113 587 96 593 257 780 111 642 258 734 259 638 110 563 278 332 282 360 256 808 285 554 284 488
15308 -2.4055219902416098 1.1999270141976719 -4.3444392925598319 140 118 60 1.4878446764059492 32 2 70 9 56 15
14429 2.2387450654765946 3.8382481169671885 -1.704402462474587 183 138 62 0.23222929377814505 133 125 134 327 97 193
13602 0.85646955440052686 4.6775474579109009 -5.0118032989527306 66 64 47 0.23359779118413301 107 91 102 12 128 41 127 12
16321 2.4824885901068452 3.5671421853227878 -1.0652923696347882 172 124 53 0.35288732468597206 67 502 66 426
14934 -1.1969886366756841 4.0102864534302292 -1.5232861477623632 196 153 72 1.6281336657237517 73 162 74 301 76 281 75 378 76 466
13607 -2.7644648004503241 7.071999619687233 -9.0995002888773637 130 105 54 2.0920253672199349 256 170 102 35
16330 -1.677659792802229 2.6387236058003949 -1.0954264653900279 97 91 60 0.85352155397137197 34 582 57 568 66 562 35 619 58 591 65 675 26 485 81 489 36 621 47 455 82 478 46 445 83 455 25 464 59 559 37 562 60 561 38 585 61 598 63 601 62 607 39 583 84 403 40 596 24 426 24 460 41 557 43 512 23 438 22 418 21 423 44 430 45 411
14427 2.0619530426680939 2.8899866505347309 1.9655075336232755 180 128 39 0.47407357054023269 99 139 97 147 286 263 266 195 267 173
13608 2.1085787271668726 2.8190284051802168 -0.8986903229711678 145 122 69 0.30524548183618472 105 85 102 46
15307 2.0186460241638131 5.3620365169558566 -5.3932987151102152 13 10 3 0.24500094380732537 29 2 76 4 77 6 54 94
13912 -1.2317445528214808 3.1442270535807149 1.3945683424433668 92 90 65 2.0781444536353706 102 352 127 515 126 576
13609 2.1085787271668726 2.8190284051802168 -0.8986903229711678 145 122 69 0.30524548183618472 105 86 102 47
13610 -1.025020848202824 6.5585198205241966 -6.83314960746588 24 18 2 0.11597608990403446 103 73 108 126 102 53
13615 -1.9928345075227762 2.4175147814588716 -0.24339699936255565 83 91 70 0.7163969849997216 105 164 106 165 102 137 101 98
13616 2.21157309042191 3.2608794006714636 1.1401348266231131 79 64 25 0.18835093213103493 285 172 102 139 286 134 261 110 251 161 250 97 263 51 249 76 288 38 262 32
13984 -2.1320878013481295 1.8575895285940753 1.2458889818516545 196 101 19 0.21663164104632496 127 414 128 460 126 429 101 394 100 357 125 409 124 278
13988 -3.3087763043273042 2.0291435490030048 -2.0687037789850189 144 133 88 1.7515596074784194 105 449 126 459 77 463 76 574 58 545
13621 -2.0294016138404394 2.3551652042622493 0.36885374020864031 17 20 5 0.18050056722673075 104 230 102 159 101 121 100 248
16337 -3.105016916304403 4.8774463980505294 -4.8898948672465119 2 3 0 1.2046342513267529 27 1 80 5 46 1 36 285 24 10 39 237
13623 -1.1223134773662313 3.2693639729430748 0.25323822351542558 190 150 74 1.307290053366879 103 317 104 368 102 163 129 321 128 342 127 293 125 91 99 131 85 124 74 159 75 305 76 157 86 107 122 329 85 378 86 374
16346 -2.9344172297595894 1.5940235510148353 0.72472728457189373 65 62 41 0.10600289674302792 51 418 52 395 53 349
14507 -1.4310587783580968 2.0550568039085215 0.97267428369527376 81 76 47 0.28024051963248392 99 134 98 143 30 184 78 140 81 119 83 80
13624 0.21525846137193316 3.1686630539950249 0.98542272016430132 30 40 31 0.14573982176983166 137 183 102 165 127 153 78 165 84 128 21 138
15323 -0.026891854230086762 4.5951722305098297 -2.1504636242350914 154 111 33 0.17041710595269355 109 212 70 138 69 285 68 301 67 296 55 291 66 276 58 178 65 191 83 70 37 170 64 173 38 176 61 173 62 181 39 154 40 159 41 139 42 124 43 139 22 83 21 71 45 74 250 208
13992 -2.0318027573084376 1.8202028460836053 1.3300654101571425 65 10 3 0.049973996634224464 127 510 126 509 128 535 125 489 124 485
13625 -2.1560953192758019 1.9246748157564229 0.65395690666014605 57 59 46 0.28634843263993814 104 370 102 166 129 325 128 180 73 341 72 299 74 319 71 277 75 288 31 282 30 491 76 303 32 426 29 258 77 256 54 444 49 256 50 283 51 265 52 276 48 247 53 240
13626 -2.2865977797951484 1.5769728835337185 0.95992054327763632 41 45 31 0.16035891640154226 103 186 102 174 129 178 128 193 127 155 126 143 125 94 124 92
14064 -1.3723028185566477 1.5838747993171853 2.103059364661322 112 105 75 0.13925200059255102 126 444 101 485 100 436 124 408 99 416 123 356
13633 -0.78740650757150121 3.086315245192417 1.039504141472704 137 147 122 0.29747129015907708 103 195 102 186 128 213 127 178 126 171 101 147 100 134 125 113 99 146 85 249 123 125 75 313 30 521 28 262 78 170 50 193 27 142 48 144 79 147 26 127 24 122 43 288 22 121 21 135 44 145 88 99 250 239 249 209
14589 -0.1094176818759862 1.8134373772749819 2.3332653355855331 154 163 142 1.1039168848563141 124 400 123 417 118 133 119 272
13634 -1.9391037876550694 1.9046910855013586 1.1418395465344551 188 125 34 0.42706457627112154 103 435 102 189 128 355 127 311 101 148 100 352 125 297 124 275 99 244 123 118 123 340
14068 -0.93351138127273336 1.9298938153140834 0.4008251704517804 1 6 2 0.96743395519934949 130 592 101 520 125 543
13637 0.77893022592616312 5.9428801107431379 -5.6292580638435092 130 139 144 0.54842405518976844 107 373 108 277 130 296 102 240 129 241 128 275 127 354 126 251 101 197 100 6 286 61
13639 2.779575443551308 3.0861407250047637 -0.32596634121432766 66 61 29 0.84015841797167135 284 142 102 259 285 115 286 73 287 20 265 9
14072 0.56476304926821264 2.4195679434917059 2.443405836981968 165 144 87 0.6774904883631524 102 626 101 550 100 497 125 574 124 542 287 403 263 282
13641 -0.97538864456159957 1.8945217226988571 0.34196023523817581 118 75 33 0.18175673635942424 103 283 102 302 128 318 126 291 101 241
13646 -2.112960616137165 2.096317618895946 0.34159148451788823 63 66 49 0.18650487257141332 103 311 104 362 102 320 129 317 128 336 127 133
13857 -2.7867647543561316 1.2576431430107142 0.72019762467158976 39 36 21 0.27575055465647674 129 639 128 657 127 658
13648 -2.1638645801730796 1.9909308574630091 0.5617406951640409 8 11 4 0.16955475945083093 103 171 104 233 102 327 129 172 128 177 127 140 101 278 125 83 124 255 30 349
14020 -1.5540008870551429 1.8989445536325054 0.12342909869529567 81 56 24 0.64253527259290721 130 204 101 82 100 86 99 101 132 249
13653 -1.6654858108242649 2.013239831945278 0.98288721768955223 85 78 50 0.14012662476616411 103 330 102 332 126 326 100 254 124 265 99 240 123 242
14887 -2.2003761891899023 2.5492133083910788 -1.2333694900648593 56 53 34 1.5596478189561662 73 675 74 646 75 628
13654 -2.182116655294188 1.9331209911387155 0.98872594652564438 33 5 0 0.23380620176059191 103 337 102 335 128 207 127 165 126 160 101 295 100 259 125 293 124 271 73 229 72 208 74 164 75 174 30 367 76 160 77 118 49 128 50 157 51 143 52 156 48 109
13865 -1.9259968138693373 2.3835791700536872 -0.40791843993862437 37 34 12 1.5167152295695172 107 509 104 539 128 429 109 415 130 451 127 386 126 406
13656 -2.0367905441790715 1.8961723537120778 1.1592241413554463 174 115 6 0.41525356443044331 103 339 102 338 128 357 127 314 126 166 101 153
14370 -2.9502574527238519 1.2046624397478398 -0.21999343271858277 30 28 13 1.6244804727953972 104 172 73 116 49 16 72 118 50 36
14028 -2.195964285328543 1.9012722357320309 1.2051443613056152 119 47 0 0.13018752131344136 102 203 128 222 101 160 100 146
13661 1.923652966223091 3.4795936605600373 -0.78146504100268865 164 114 36 1.9356494998575886 105 346 102 393 104 432 127 360 121 182 88 147
13663 -1.3742106756533323 1.8619434055566431 -0.087095637672009951 93 78 39 1.8350464319134174 103 413 102 413 127 369 126 75 100 214 125 365 124 354 123 31 123 296 72 145 122 244
18579 1.5160916289156543 1.7471495674295707 2.4103058708046183 0 0 0 0.49051209125469086 89 390 119 410
13664 -0.957217340813871 1.8416954851357148 0.29901356352659075 195 189 148 0.044900077601762962 103 417 102 423 128 423 101 366
13665 -0.76267846954359086 1.851868188917063 0.51515184807637637 224 199 158 0.7493292111238411 132 595 102 427 129 493 127 471 101 442 122 263
14493 -0.42501966830380894 3.0948248574194479 1.0925902500490143 154 166 141 0.71256519041555044 97 522 85 484 98 521 75 594 77 556 250 379
13666 -1.974748057472677 2.4187375840589183 -0.29756698917164948 184 171 82 0.39929844170452589 106 389 130 353 102 434 129 300 128 327 127 275 126 106
13972 -2.3364940728697428 1.5310911276198982 0.9559396870733925 56 57 43 0.11834117541887768 127 301 126 321 125 286
13669 -2.0987661613347988 2.0610264031590799 0.46886263604658057 17 20 11 0.096916727311504566 103 315 104 365 102 442 128 339 127 290
14998 -2.096269919711109 1.879530316483937 1.3780757233312524 15 3 0 0.13103548186040259 75 183 30 195 76 180 77 133 49 149 50 173 51 165 52 178
13671 -0.83555920201944733 3.1407956215194019 0.50192075111865786 27 32 24 0.58418920313971334 103 491 104 611 102 444 129 322 128 447 127 404 126 322
14491 1.4631726386626231 2.4997825631682984 2.7505632062605061 151 163 143 0.36437551737293489 99 503 85 472 123 496 86 423 86 440 118 412 287 429 122 417 121 435 89 375 119 376 120 327 88 357 87 335 264 388 263 313 288 376 262 297 265 339 266 371 266 396
13672 -2.3013901199999807 1.6525523609462807 0.7935123496552039 13 18 8 0.91957931207533594 103 325 102 445 127 147 125 84
13976 -1.3706133981661563 1.9667332249063638 1.3790178939577584 97 94 64 0.19685050661491627 127 173 126 334 128 214 101 392 125 403
13673 -2.3355645312509208 1.5352486805633807 0.95106517661939671 45 49 34 0.21392857955433056 103 331 102 447 129 333 128 349 127 300 126 320 125 285
18661 0.9278541536344862 4.5999867240198995 -2.0344943863989875 191 167 131 0.22936651329088023 92 371 93 387 137 379 115 371 94 449 116 277 91 254 95 316 136 289 114 282 113 304 96 305 117 225 90 183 118 194 261 327 119 52 251 403 259 506 260 378 250 249
13674 -1.9787560333603296 2.0473326027311893 0.86083878299926053 82 77 48 0.15099495818413991 103 432 102 449 128 351 127 304 126 327 101 389 125 292 123 336
13677 -0.7106692570177755 2.2095612544832242 -0.21734100158763664 197 160 92 1.856397924570911 105 459 102 494 128 494 127 462 126 550 101 511
13679 -1.4825415935472297 2.3677962981341403 0.15858726104514598 32 30 16 0.99614052349585103 103 154 104 208 102 513 129 304 127 391 125 547
13680 -2.0667691281480822 2.2994645316172875 0.29531977619637417 80 76 51 0.16802602884390549 103 486 104 473 102 516 129 504 128 441 127 485 126 488 101 532 100 472 125 554 124 523
13681 -0.81541742786264426 3.2313452172785131 0.33874942774222755 35 47 35 0.82757017683399337 103 555 102 519 104 656 128 442 127 400 126 317 101 122
13682 -1.3929328491398472 2.2098899391889608 0.74868503870179426 81 74 56 0.28707496109482161 103 428 102 520 128 516
13685 -1.2836671909803672 2.8885020846687275 0.53287832008288527 10 6 1 1.5837789590561475 104 552 102 524 129 507 126 496 101 458
15078 -2.9424741094408366 2.2415399071830908 -1.2228398933780631 22 23 9 0.25028356695761356 31 77 76 261 30 433 29 29 77 205 54 288 50 47 55 121 33 128 34 135 48 189 57 124 80 8 35 289 81 6 36 126 47 10 83 165 37 108 38 97 84 160
13687 -2.2218822414242618 1.7783124637975942 0.94510674233463843 49 51 40 0.21944607012752271 103 495 102 532 128 523 127 494 126 424 127 407 101 462
14571 -1.0338899704494378 3.0877032091915284 1.1059990412106226 171 129 55 0.23101652520364357 98 163 123 131 287 149 120 77
13688 -1.2391815326420332 2.786646435359974 1.058899166454371 172 127 53 0.57131776215608165 103 437 102 534 127 506
13689 -0.46427767674952269 5.0723709971850077 -5.825115210025416 73 60 27 0.52737522306497975 103 517 104 513 105 435 102 559 129 463 128 551 127 530
14060 1.0796701650019276 2.5717326974985446 2.38030837361539 164 170 148 1.3310873694243426 102 538 101 470 100 422 125 498 124 494 85 392 123 415 117 441 122 210 121 364 89 355 119 270 120 78 90 133 264 361 263 245 288 284 262 256
13693 -0.93625744703867186 3.2393306546470653 -0.12028048554391187 207 165 89 1.3998489294490917 103 552 104 602 102 592 129 585 130 632 128 569 127 549 126 486 101 528 100 526 125 548 124 570 99 494 85 458 123 490 86 410 122 380
13841 2.2572821732399317 3.1021333088646208 -2.1920803726910392 36 30 10 0.29646600916334437 105 430 128 470 104 506 127 433
13696 -2.1769146685441823 2.1192983164150045 0.38878577485998517 61 63 47 0.66052915028597159 103 556 104 609 102 597 129 547 128 571 127 488 126 489 101 533 125 471
13845 -3.2490131458383447 1.2251126523539877 -0.32393782612317867 144 127 76 0.45138701630230305 129 492 128 500 127 377
13700 -2.2703453302015641 1.5926130283679569 0.99871333784014538 17 19 14 0.18453127735660207 103 566 102 607 125 480 124 478
14871 -3.0356102217377865 2.1515514463993251 -1.5150273990843171 148 133 90 0.18533340971800469 72 420 73 480 75 436
13702 -2.0578859212408918 1.8853644331676165 1.0538937905726637 179 122 8 0.31000735115104089 103 571 102 611 128 579 127 562 126 570 100 484 125 563 124 534 75 560 74 568
13703 -2.223498133743238 1.6374492944915104 1.1026638458202016 6 6 4 0.15205070996937237 103 572 102 612 128 527 127 495 126 503 101 544 125 485 124 533
14360 1.2457216485235123 4.6981583178442019 -2.1134346259388903 180 139 75 0.067752374935194426 100 51 99 64
13707 -2.4465784013636882 1.5177657441987256 1.1481734521183162 33 34 28 0.19590032938685811 103 576 102 617 127 564 128 584 126 572 125 564
13853 -2.5138364054336404 1.8668325367836791 0.50165302023537084 15 18 11 0.36068065942178301 103 562 128 574 127 555 125 474
13708 -1.2914236833613981 2.2006321175003705 1.4302863616092949 12 15 8 1.7803924878368986 102 619 128 532 127 509 126 511 101 469 100 487 125 491 124 486 99 462 85 436 98 473
14354 2.3293767255840838 2.4637833768484412 1.1371811153494413 23 25 15 1.2929494857660517 110 202 96 182 95 199 99 100 134 210 133 306 85 80 260 240 98 110 86 78 122 59 88 73 87 42
13709 0.016627977782205677 6.2665364389072105 -7.0254636168637816 9 8 4 0.32428673231118227 103 519 104 571 105 499 102 634 128 553 127 532
13710 2.766300455806642 4.0179799335595296 -2.0724038622107823 162 132 72 1.281912035672083 104 667 130 564 102 640 105 585 127 578 126 534
13921 -2.1018392439524023 1.8935919860443355 1.1613813765708101 72 12 3 0.25425929488455967 102 666 128 614 127 604 126 612 101 583 100 533 125 616 124 576
13712 -0.81744880449012758 1.8877973443714404 0.44317634711760895 3 6 1 0.36546349431894992 103 603 102 656 129 578 130 591 128 604 127 592 126 602 101 573 125 540
18528 1.4165491360426574 1.9344579968447391 0.6383613519224165 179 133 67 0.37802815952071045 96 146 119 34 136 164
13715 0.050006863906354143 3.2048605767999288 0.92094844594211644 19 30 24 0.81090257164855473 103 563 102 663 129 590 128 576 127 602 104 659 126 611 101 581 100 531 125 561 124 574 99 499 97 521 102 694 85 465 85 480 123 494 286 457 287 449 122 412 120 322 286 427 262 294
13925 -2.4134073203616802 4.816307458405146 -4.2159834771505489 167 142 88 1.5650404559037041 128 664 129 642 130 665 127 652 128 676 126 670 125 654 124 612
13716 -2.1676053862735789 1.7613779832483476 0.87852079722603493 7 12 6 0.26493544721915518 103 610 102 664 129 591 128 612 127 601 126 608 101 582 125 614 124 572
13717 2.5171997456716961 3.6548909891695436 -2.6078849647897329 24 22 4 0.59195235001955659 130 637 102 672 129 597 103 582 102 631 128 620 127 609
13718 -1.2271308279797062 3.3090126293551285 -0.062577694689108176 204 162 83 0.54906657239423562 103 609 104 655 102 690 128 636
13720 -2.3082688471521724 1.5523707851291317 0.93401971975513676 36 39 27 0.8870104815994595 103 611 102 695 129 592 127 556
14440 -1.1833610047822221 1.8176459606831716 0.036919125942307562 56 38 10 0.29538942167232485 73 425 97 334 72 351 74 386 71 358 254 563 75 369 70 408
13723 -0.60065346689416776 3.2864798988205246 0.4486038126516429 19 31 23 1.2531625196689473 102 757 128 697 127 698 126 710 101 677 100 617 125 713 123 573 122 481 121 497
13933 -0.60733870610335827 3.310755957750934 0.43388747067713224 20 31 24 1.4061759814094885 102 756 127 697 126 711 101 676 100 616 125 714 124 670 123 574 122 482 121 498
13724 1.1202370368104075 5.0316541864377564 -4.4764712310435897 32 30 19 1.9242784581552808 131 610 108 619 107 546 130 621 102 637 93 524 115 653 257 664 256 673 128 596 127 577 126 584 31 481 69 418 68 452 33 467 48 356 80 314 83 323 25 307 40 372 24 290 41 329 42 311 43 399 21 304 44 252 45 285 118 384 261 399
14434 2.7478981223517129 3.3849075572137379 -0.45438184029765843 53 47 15 0.55374547147634268 114 280 137 124 97 218 117 219 90 179 118 186 89 159 119 156
19055 1.9676814206394928 2.122434643625255 3.9861443301244903 97 64 19 0.09113927077453636 264 333 288 294 289 229
13726 2.2997653626077983 2.173303982384176 -2.375538433876573 28 39 2 0.24743319539179062 105 27 106 25 129 3
13873 -1.171517307945098 1.5695427614678348 -0.010383001763952543 175 134 56 0.27683826594991751 102 88 103 107 128 88 127 71
13728 2.2099853382883041 2.2446303206626181 -1.6623952583138082 115 93 43 1.1900095277369591 104 30 129 28
14557 2.0326711349753479 3.3701112749026496 0.91631993604762574 120 85 26 0.61389451233789727 85 457 97 497 96 627 131 600 132 683 124 569 123 453 92 546 137 580 95 602 98 492 251 558 91 489 90 402 118 435 121 428 286 445 261 430 89 346 119 360 120 285 88 328 87 332 263 296 249 339 288 352 262 272
13730 1.7477874960803195 4.75613522139985 -2.1652507911386309 179 132 55 0.11978014806648776 108 310 129 98 100 45 123 8
13733 1.4923411782254261 4.0624542223996105 -0.75793649450896039 181 132 48 0.23437135583913346 104 154 129 113 128 101
14555 -1.2188447648869771 1.8785723338456286 -0.013662245650843868 57 33 4 0.89584125708777484 133 442 132 489 131 316 130 334 102 291 129 121 254 562 253 595 128 103 100 328 124 359 99 308 73 424 97 335 98 397 134 555 111 562 123 378 72 352 74 385 71 359 75 368 31 357 30 463 76 360 32 407 29 308 77 316 70 407 69 380 54 429 252 537 68 400 67 411 28 318 78 315 49 346 50 357 51 337 52 332 55 372 33 370 27 308 56 373 48 315 66 275 53 290 79 349 122 307
13881 -1.9887434598159979 1.7466697173643526 1.3139104580836012 141 30 12 0.16578771449377108 102 339 127 181 101 154 125 116
13736 -3.0122960504596583 1.2412280352209408 -0.33228718668273338 88 84 55 0.26909417899565719 130 196 129 125 128 104 127 89
14040 -1.3024225899764383 2.9049213577249926 0.88193481209801017 169 131 61 0.52715574797329934 126 167 101 297
13737 -1.8483730037578059 2.1677852928415406 -0.33368212484715831 107 71 33 0.39040050308527763 102 116 132 493 129 131 128 121 103 282 104 335 126 91
13738 -0.04635662827443239 3.8276550816908785 -0.4495035153216087 212 174 113 0.49785399118125595 107 307 129 143
14386 1.9449172623667668 4.6674786298644468 -7.5226626357658857 164 150 112 0.39510551445023567 93 421 114 425 115 539 73 365
13741 -2.019700680708918 2.3901631534038339 0.080107744170711703 10 10 2 0.20253897329233042 130 223 129 157 126 123 101 263 100 238 125 275 124 245
13825 2.0331606515443812 3.7969937466026598 -2.2675407132377661 167 119 43 0.50852959639248374 102 241 104 89 128 273
13744 -2.0590789480905891 2.156066936004216 0.61176275912698785 13 14 6 0.73709260103851271 102 169 129 175 101 283 100 252 125 88 124 91 74 327 73 346 71 379 31 159 73 213 30 497 76 387 32 212 32 430 29 263 29 338 77 343 67 210 67 423 78 345 49 367 51 360 52 281 68 418 48 332 53 311 79 307 81 239 47 285 83 294
13745 1.0606608079842346 5.7822658085720162 -10.638811030516845 215 224 223 0.48999649275721935 134 388 129 188 111 377
13829 -1.7541562304281042 2.1489098540614542 0.68279307239739118 82 80 52 0.28288719457264627 103 321 128 344 127 145 126 314 101 281 100 250 124 86 99 233 123 107
13748 -0.32263850399400762 6.9086889489444898 -7.7847817843515497 108 103 85 0.23630030318994774 107 118 129 238 128 53 127 29
14855 -1.5201188611858643 3.9264906381327829 -0.94721259386198153 194 147 59 0.99133565528112944 73 506 75 281 57 337 249 225
13750 -2.9042227579672444 1.9728387145647823 -1.1676754183212654 95 86 55 0.12737442200696167 130 439 129 272 128 96
13833 1.6121711395511293 2.4231506161241665 -2.6437038594526721 165 144 91 1.9206588241946603 106 211 107 230 129 347 105 202 128 368 68 238
13752 -1.5142660722451753 1.7895585882330931 0.30729549236353854 34 36 23 0.072717926482549489 130 452 129 291 127 113
13754 -2.7679416747323478 2.629422727075228 -0.92314227401571314 80 77 54 0.88479719461594042 103 292 129 297 128 136 127 115 126 101 125 53 30 95 54 164
14344 0.8254155104900589 2.3616530418427248 2.697223649253508 69 44 9 0.38271817721394225 124 606 99 536 85 490 123 526 86 444 122 418 121 457 87 358 264 409 288 379 262 299 289 287
13755 -2.8970614953533262 1.1589986883908372 0.13236128769108912 96 90 61 0.22801978370007711 104 346 129 298 127 105
13837 -3.0602838315413008 1.248211047271957 -0.17423444133549471 67 66 38 0.27428993675498969 129 404 128 424 127 379 50 246 54 124 51 45 52 62 53 63
13756 -1.5360648117573026 1.8037234830297655 0.35579581350392275 7 2 0 0.35154115822424942 130 351 129 299 101 252
13757 -2.8207657502636749 1.5445188852489038 -0.024934454708668896 31 29 13 0.15627632517175252 130 455 129 303 128 141
13758 -1.4587838031668572 2.4686013657610029 0.21494708985144878 31 29 14 0.86296920675985511 103 158 129 308 125 274 104 466
13763 2.9200315208015017 6.2742931552812129 -8.0343107628392492 168 153 117 0.56062417518453544 104 499 106 500 129 349
13909 -1.8555054300598448 1.9289890131603651 1.2359078736209714 97 96 65 0.12154176027228773 102 618 128 587 127 505
13764 1.2157955426390541 4.8340422033195143 -4.861434706371127 4 8 2 1.1827778877660053 135 354 129 358 112 396 113 376 253 554 254 381 128 384 97 290 98 281 34 374 49 308 50 328 57 377 66 330 26 252 25 243 65 101 24 225 41 320 42 304 43 395
13765 1.5008928889704758 3.3727658765641388 -2.0556507038642828 172 142 83 0.41715637497236341 107 372 129 367 127 349 128 391 102 238 126 364
13917 -2.1231516710447802 1.8714750694720597 1.4469539910743838 79 72 44 0.45892196336534574 102 628 127 568 126 574 101 549 100 493 125 497 124 492 74 505 75 494 30 602 76 497 49 382 51 379 52 365
14418 2.2775091055088672 2.544915862232167 1.0013033517883421 5 6 1 0.73128933546787589 101 234 97 101 85 222 98 108 135 185 286 227 261 290 89 80 88 70 263 121
13773 -1.8762155656263895 2.1433845776440452 0.65057909567609573 48 43 24 0.20534584104743825 103 431 129 429 128 346 127 402 126 316 100 347 123 334
13777 -1.3359957665772848 3.327706704193091 -0.06542824360656925 198 155 75 1.9243172233530799 130 604 129 503 101 452 124 528 123 460
13780 -2.4967949428583802 1.8187367542916801 0.4402527703039934 25 27 20 0.19006620107361596 103 558 129 550 128 572 127 553 126 563 125 551
16180 -0.28113908124598447 4.0003709205116449 -1.0950130570425238 205 159 66 0.037665296581798707 54 631 34 610
15015 -3.1489862883942186 3.0267921261510753 -2.2352527511865308 135 115 68 0.91329047871619828 75 358 30 431 77 311 76 52 54 285 67 393 28 182 49 403 50 44 27 362 35 467
13782 -1.3701036669529858 2.7881989895041546 -0.18465711851895697 198 149 56 1.874155729486632 104 651 129 583 126 656 100 555 125 660 124 633 99 520 98 528 97 516
14504 1.9309527588163973 3.7267271579715251 -1.6003287575217369 27 30 2 0.2134599937365444 135 147 98 61 71 105 29 228 68 137 89 35 119 8 120 0
13787 -2.396236301663186 1.979813140755557 0.077960915998292551 60 60 45 0.22935862051124753 103 654 104 707 129 631 128 634 127 621
15154 -2.2010386908492205 1.7477610421707306 0.95090130992950117 7 10 5 0.20060009823494129 30 164 31 164 32 215 50 148
13788 -2.7054096260300389 2.0733704979199392 0.15728246554990122 12 13 8 1.1158677321740189 104 720 129 647 128 669 103 669 127 657 126 675
16179 -1.3390230944949078 2.4114885489177356 -0.65490952121684654 14 16 3 1.3844338656923121 27 483 34 605 57 605 66 581 58 611 26 488
14498 -0.74442600482090682 2.9986529145964731 0.088592759433568202 195 144 49 1.8026762226692348 96 645 97 517 95 502 73 574 98 490 99 492 123 454 74 560 75 554 31 448 30 650 76 550 32 573 29 412 28 463 51 499 52 411 49 272 48 388 26 408 122 407 121 396 120 314 119 390
13789 -2.709851598523052 2.1091346716031247 0.13089699336440708 12 13 8 1.352277327342575 103 670 104 721 129 648 127 677 126 676
13790 0.35345677338639064 3.5856569685081925 -1.2451826887171811 189 152 81 1.4013425825605741 104 744 129 672 128 699 127 704
13937 1.5279697939016612 6.0708662666337396 -5.4023107132652175 3 4 0 0.38986466379244022 107 120 128 54 127 31 115 342 116 250 133 261 110 295 109 144 131 101 108 118 130 102 285 277 126 22 100 7 85 174 72 246 54 286 55 259 57 282 65 300 286 198 88 127 87 113
13796 2.5385718125111225 2.5632964873877979 -1.9768027271566635 10 10 2 0.54958217398255149 130 615 129 560 131 536 128 590
13945 0.25761517021254998 5.9211717230500929 -6.2330043523494192 140 144 141 1.2306577211991589 112 296 126 13 134 302 98 14 95 92 68 366 67 376 66 326 65 397
13800 -0.91602735756232867 4.0292964410824244 -6.4062361918885369 16 9 0 0.050737663744806101 109 95 128 23
13808 -2.8675779642597163 1.9430385488709274 -1.0490149122048278 92 85 55 0.15574275756231198 129 398 128 98 127 260
13809 -2.019430966631627 2.6255680743906784 -0.99643228605546086 91 85 59 0.17180092953714146 105 140 130 185 128 112
13893 -2.239430901132518 1.9129549242580237 1.2222972047335896 169 90 13 0.13556239063230896 102 460 127 318 126 175 101 305 100 266 125 301 124 116
13812 -2.6072573027458854 1.9373089401786951 0.055000064283926675 6 8 3 0.15839166051659032 103 305 104 356 128 157 127 124
14919 -3.0222469228224034 1.7846914319964517 -1.2729198352603399 92 86 54 0.31240331616834566 73 90 74 72 31 50 32 274 54 91 52 42
13814 -2.7989249237078284 1.5024868702590426 0.4926114733185622 35 33 16 0.25741177426376732 129 169 128 172 127 137 126 311
13897 -2.3146981958012169 1.9688624386283649 1.2763431744082896 40 41 27 0.23823540804233073 102 349 127 325 126 183 125 129 124 124
13816 -2.2016076651463878 1.8776658885277775 0.6830242858636264 15 18 9 0.33845749137574527 129 327 128 184 101 126 30 351 68 417 31 284
14408 0.60132646602046258 4.5917802858987553 -1.5094721372337454 226 210 185 0.63494648537148102 94 547 73 497 72 507 71 507
13819 -2.6804168110277615 1.7780979653386766 0.86902410794820772 5 6 1 0.34763545681224145 103 436 128 208 127 166 126 159 125 102
13901 -1.3654178890596458 2.0589573886446355 1.3909534302486737 94 88 59 0.97980932512686769 102 453 128 457 127 412 102 454 126 508 125 487 124 536
14402 2.0236295972169875 2.6399781461750926 -1.3101868336343343 142 121 69 1.7391617413056586 108 393 107 467 130 398 129 460 102 372 103 374 128 474 127 441 73 281 91 71 94 136 115 126 136 106 114 125 112 151 97 23 74 237 71 223 30 48 251 189 117 47 118 13
13821 2.0685424227391165 3.1837043403196064 -2.3492451435293176 17 9 0 0.25425587611501044 102 7 104 403 128 247 127 7
13822 3.0055981030070797 4.8967189363804167 -4.2505956551221082 26 36 13 0.62828316206368706 105 212 128 255 104 273
13826 -2.8961665555950162 1.5006715411809382 -0.56418645168049775 107 98 67 0.17836972534546394 130 447 128 307 126 275
13831 -2.2221693128835369 1.527097936407952 1.1197670320947464 4 6 2 0.31420464885860921 103 434 128 352 127 307 101 291
15291 0.54423227644181371 2.7945089552945643 2.0060775881293047 147 156 129 0.63182039192848094 29 500 77 523 28 525 25 373 249 279
13832 -1.0246293491643648 3.2302931337084448 0.74326960335842873 3 9 2 0.28887608915904456 103 189 128 354 127 168 86 119 85 134 120 71 123 246
15245 2.1269207818688805 2.8327708885846601 -2.3714618866882207 50 39 17 0.38455115846498183 75 28 77 0 78 3 260 39 257 147
13842 2.1325246255396353 5.1182280583182918 -5.2597309158960099 175 166 142 0.29577691791158056 103 514 104 507 105 496 128 473 127 439
14726 1.9358480871990196 6.6205893695080569 -8.4813161145424214 182 200 212 0.53214846143043282 91 309 115 446 116 333 137 213 74 355 31 323 114 92 32 248 54 252 117 276
13847 -2.4668510434263373 1.5863808133937727 0.91544684605547477 42 43 30 0.17951641757429576 103 567 128 522 127 493 126 494 125 481
13848 -1.0703243655662944 3.2469208644001299 0.68905580526009191 172 130 57 1.0775743836536034 103 433 128 526 127 500 126 331 102 334 101 463 125 108 99 460 97 131 97 412 85 245 98 256 98 417 123 245 86 279 86 380 122 337 119 322 120 146
13855 -3.1533006521688463 1.2139097694421432 -0.18007268519346803 37 34 15 0.22443657637053019 129 636 128 653 127 643
13856 -1.5221289931268611 2.3506883145407085 0.32293064777902458 16 17 11 0.96549646745162909 103 627 104 709 130 668 128 656 127 646 101 642 100 585 125 679 124 635 123 548
15197 1.1162181704342116 4.9249875044722904 -4.8290089691108244 142 123 94 0.23118943012237647 259 286 31 34 30 256 32 60 109 122 110 108 132 123 131 93 29 8 54 99 52 47 53 48
13858 -2.8156898222787388 1.5316902251065954 -0.15423773178654579 54 52 31 0.79540277535357728 129 637 128 667 127 655 126 673 130 692
15553 0.47354031064333763 4.5558777178426846 -5.8436962292988133 201 196 163 0.081883645510384351 32 31 68 40 56 53
14678 -2.1647412662218333 1.8103629592384076 0.86546563198175575 8 10 7 0.38099090314684436 73 645 72 581 74 630 75 631 31 618 30 745 76 632 32 652 49 585 50 583 51 555 52 524
13863 2.0601655106352812 3.5446990468193285 -0.97701992650692593 151 105 36 0.94681861907457721 255 233 253 198 103 96 102 81 128 73 109 186
15562 -1.4595662769408517 2.8300204055710814 -0.17009965907394586 66 60 38 0.2248432406665743 69 311 68 185
15195 -3.5083269524628284 1.6274734811481442 -1.2828479502161365 154 135 79 1.7845653425255712 72 621 32 680
13864 -1.0876485681700174 1.9042949816888208 0.32261584127321447 114 68 22 1.5828603159745736 134 466 133 449 96 319 128 321 107 425 106 386 104 456 103 286 129 285 127 272 126 292 126 401 101 243 100 227 125 264 124 236 99 322 73 317 253 678 97 232 85 311 98 235 123 316 71 263 75 266 31 264 30 475 76 105 32 416 29 317 77 228 77 324 75 377 70 320 54 342 252 542 68 318 28 327 78 326 49 352 50 266 51 343 52 249 55 299 27 83 27 316 48 229 57 189 53 295 79 212 80 183 35 201 26 75 26 76 26 288 81 225 36 200 47 273 82 191 46 200 83 198 59 150 38 386 37 166 39 281 84 193 24 252 42 332 43 255 23 203 22 78 44 276 45 165 122 262 121 203 21 202 40 302
13871 1.8958985496936098 3.838241691459527 -1.8646410089272205 156 112 47 0.39866123282797178 103 80 127 49 126 36 125 1 85 21 264 8
13874 -2.8456241426196081 1.2738976633217989 0.1143206534362039 98 91 62 0.10557394879988909 129 302 127 110 126 95
15569 -2.1931281516020604 1.9874220513614964 0.56921893091939046 5 8 1 0.03536179409322715 32 193 68 203
14758 -2.0133603126400552 1.9076199170900239 1.0812891455828673 127 74 12 0.79305909949657027 73 649 74 632 75 618 31 604 30 736 50 569 52 526
13879 -2.1574932281678847 1.9533584101507677 0.99631757090199513 106 57 2 0.25618829187927594 102 188 127 167 126 161 101 146 100 133
15578 -1.4763937804697727 1.7659352094059657 0.024499589058960963 42 33 10 0.37412630173464489 69 293 68 309 67 300 66 271
15275 -1.0317843438161469 3.2487986647313782 0.32752011244371942 4 8 6 1.8294082466231312 30 375 77 353 29 123 31 176 252 552 67 427 28 255 78 145 49 379 51 294 52 177 27 346 66 441 79 242 251 430 250 325 249 269
13880 -2.2446087723167563 1.8905605065004016 1.0906015030806655 40 9 2 0.21528791261372116 102 457 128 358 127 176 126 168 101 300 125 299
13888 -0.83256676210995084 1.7211324002717514 0.43323719792824072 52 47 26 0.42327733740267454 103 280 127 265 125 373
15357 -3.7518056130264879 2.3913626092013942 -1.0960418316275999 34 32 17 2.0524080401240328 75 372 55 483
13891 -2.087988714989562 2.074467566410966 0.67709038051382175 61 63 49 0.12972405105321705 129 433 127 299 126 420 125 398
13894 -2.0784135097174099 1.8407796646984853 1.3630298516177934 193 83 30 0.24014923917037934 102 343 127 320 126 338 101 306 100 267 125 124 124 284 74 177 75 182 31 306 30 381 76 175 77 130 49 148 50 170 51 163 52 175
14838 2.1288641938495485 4.3498319257206388 -1.3703535340672328 79 52 30 0.097136775597068278 73 144 74 111 75 109 31 135 30 344 76 85 29 89
13895 -2.3718743525806509 1.839855192622136 1.269662174277792 26 27 21 0.15640295615239638 102 464 127 322 126 432 125 303
13896 -2.0357626741779526 1.8688109234638171 1.4130076146937711 87 80 54 0.20737908964912929 102 347 127 323 126 180 101 168 100 271 124 121 123 133
15261 0.75568107344320001 4.9860732067286442 -5.3043268862722899 1 1 0 0.50923452896069343 76 223 116 339 77 169 74 223 75 221 115 455 78 286 49 304 79 269 80 249 81 282 117 281 83 257 25 240 37 330 60 217 38 253 39 242 24 221 43 228 42 55 41 63 23 244 45 207 118 253
13922 -1.9993449903111624 1.9704829141724123 1.0977531882220908 182 108 9 0.45616197086939075 102 716 128 639 127 626 126 638 101 624 100 573 125 645 124 598
13923 -2.182345147643618 1.8803239106512462 1.2502148492606966 193 99 33 0.25413457224390129 102 718 127 628 126 640 101 626 100 576 125 647 124 599
14742 -3.060471059687778 2.6418058426205149 -1.4197666732598391 83 79 50 0.49658639346069822 72 494 74 538 71 501 75 531 31 493 30 620 76 525 32 544 29 446 77 482 70 532 69 513 54 550 68 517 67 537 28 444 49 483 50 479 51 400 52 383 55 481 33 478 56 469 34 531 48 429 57 517 53 385 79 419 80 378 35 543 58 511 81 428 47 386 82 333 46 327 83 397 37 479 38 521 84 400 43 398 44 254
13927 -1.1912906160806509 2.5996500779403808 1.4301746412726957 181 134 47 1.4881282762058043 102 732 127 666 126 664 101 646 100 590 125 687 124 641
15259 -1.510554209546441 1.565827833706483 2.004422198146671 94 88 59 0.18408707201154303 75 198 77 152 50 191 51 191
13928 -2.7601870521717378 3.1037632898283913 -2.1333520581079397 130 116 71 0.68483673503051701 128 677 129 644 127 672 126 688
13930 -0.82961529610488705 2.1876672832764057 0.24839028848009964 170 139 88 1.2888110823245875 130 678 127 674 101 650 100 582 96 676 125 693 85 498
13938 -0.98655837502941179 1.5337168648961861 0.079043322232625945 174 129 49 0.64635201099272177 127 366 130 325 128 412 126 385 101 348 124 347 99 208 97 57 85 350 98 213 30 84 76 262
14822 -1.3162416778091597 3.2907355751185627 0.069387273779992847 147 96 13 1.1510932968805598 72 612 71 616 75 643
13943 -3.8279583584149455 2.0133419300737554 -1.5115433223271613 144 128 79 2.3024376150872659 129 659 127 673
15339 -2.1121671609030086 4.7557349612379065 -2.7188081347153847 180 134 48 0.28116215989031729 254 421 70 299 255 475 67 291 68 143 34 175 48 64 66 139 35 172 58 162 65 176 36 184 46 49 25 69 59 137 37 150 64 167 60 125 38 160 63 151 61 162 62 174 39 135 40 143 24 68 22 64 21 53 44 71
13944 -2.8252948458000211 8.8421763890456084 -11.761629452316578 139 111 61 1.8112621820162662 253 34 254 67 126 8
13949 -2.4353899111839068 2.6935837918660526 -1.3465242435564519 59 58 40 0.66712645748604649 107 181 129 122 126 76 124 220 30 71 70 137 27 30 56 133 66 126
13958 -2.4290019233732054 1.5695176572579221 0.99685444265302792 21 22 16 0.19490019291974134 127 158 128 199 126 145
13963 -1.0391385689281332 3.0715186931470804 1.0506159712776668 122 84 29 0.22595748342074717 102 195 126 174 125 122 124 115 99 153 97 146 85 142 98 160 123 129 86 220 122 107 121 121 119 119 120 75 250 185
13965 -2.2556468949995669 1.8362795351573096 1.5426117769853254 68 63 39 0.11781245914941668 127 192 126 191
13966 -2.2556468949995669 1.8362795351573096 1.5426117769853254 68 63 39 0.11781245914941668 127 193 126 192
13971 -1.9942464110237237 2.1663456406613339 0.65297924876425117 61 54 35 0.12769506631903244 127 296 128 348 126 318 101 286
14695 2.1807807178118659 3.3357848402226833 -1.7039510708610233 15 31 0 0.52770688509904218 257 383 258 375 74 64 259 304 118 35 261 235
13974 -0.69425407989449628 3.3261031798873693 0.51424867379113492 31 41 33 0.20497567944679473 129 323 126 324 101 284 125 399
13975 -2.0572260939812854 1.9210793441062208 0.98421609771538976 19 19 7 0.3927218518326609 127 159 126 329 124 100
15208 2.4296942540583095 4.2834603941311054 -1.0960550338404182 164 114 40 0.12403453261569242 76 98 29 95 70 150
13979 1.8491143941756132 4.0000229127796301 -2.7143525416762451 173 141 86 0.67014627416538941 103 58 126 363 101 329
15202 -2.8769708111308505 2.0739767619389062 -1.1978846284759155 54 48 20 0.21063250847959319 32 99 29 20 49 22 51 42 55 112 33 118 56 105 34 124 80 3
13981 -0.74357689083552414 3.4907452998829358 -0.093078272833255898 29 38 28 0.98149882751371198 129 419 126 414 101 265
18799 0.43727661069869167 3.0256035292079226 1.3353504827990053 20 30 22 0.063464692204628276 250 121 249 164
13982 -0.78121493790931384 3.4173438890461498 0.1244366064881694 35 45 34 0.26148957363840175 129 421 126 417 101 276
13983 -2.8159198142709272 1.2586954504049206 1.2433910557405079 73 67 43 0.17362827463311362 127 413 128 458 126 428
15325 1.1397218140302494 3.8853724615019591 -0.41203877498811192 14 27 18 0.26697134760512969 130 173 70 178 261 192
13986 -1.659682592641051 1.6989959035676592 1.8075450457917046 74 69 42 0.18935470898430251 127 424 126 436 101 404 125 307 124 291 123 259
14599 2.3711200452753043 2.3187414367253583 1.5900535461433754 3 4 0 1.7467088272506583 137 302 96 344 123 220 135 320 85 227 117 242 90 208 121 206 121 208 119 180 288 222 265 155
14006 -0.24118415641847041 3.7418901611114874 -2.2830260631792458 197 164 95 1.3293425322764643 102 753 127 682 126 699 127 694 128 695
14011 1.9173136520141956 3.2163914038925352 -1.4937125463106482 56 85 7 0.13424328282783921 104 419 102 244 126 370 108 284 129 371 128 393 127 226 101 202
14012 -0.95867462803423598 1.6465989259176939 0.088079221272363339 144 111 44 0.18681847073101843 127 73 126 59 101 48 125 24 124 15 85 40
15106 -1.3889095822611761 1.583787733485053 2.1052571387082195 103 97 67 0.17748015659096003 30 672 76 568 29 494 77 522 49 537 50 452
14013 -0.37160419524514987 6.318154747580957 -6.1985475284828286 31 29 16 0.16736402025341401 109 154 132 155 101 17 99 26 97 24 85 4
14021 2.2369010648466143 3.1737839627395137 1.3579296237107092 91 75 29 0.18011649312659525 102 147 101 107 100 114 124 80 85 112 123 93 287 89 121 87 119 96 120 58 87 63 263 62 288 164 262 118 289 125
14022 -1.8099605290402199 1.9824814426251933 1.0549492054939371 100 95 63 0.059604878387098638 103 190 101 138 100 128
15192 -1.2075290802402399 3.6430859861132361 -0.26703590887799045 190 138 46 1.8315075099865485 30 732 31 602 32 653 29 561 69 605 252 635 68 638
14377 2.3363145492446735 4.3197991325083152 -5.7293974589693812 166 151 115 1.6986309378617572 92 206 93 36 94 58 95 42 114 80 73 250 115 69 91 6
